//X,Y,Z,Nx,Ny,Nz
-89.24912262,140.81028748,-61.38868713,0.769176,-0.572521,-0.283881
-89.12762451,145.35829163,-42.68910217,-0.888557,0.111599,0.444985
-89.15225983,142.57336426,-43.37145996,-0.793706,-0.371899,0.481375
-89.16107178,141.92019653,-62.75016403,0.905172,-0.225929,-0.360028
-89.03186798,146.23306274,-59.44314575,0.798244,0.464170,-0.383864
-89.12528229,145.96754456,-59.99509430,0.797273,0.462257,-0.388167
-88.76039124,140.18623352,-58.63240433,0.695899,-0.633968,-0.337356
-88.81289673,145.50141907,-42.16425705,-0.852010,0.145179,0.502994
-89.04383087,150.60990906,-52.50783539,0.125416,0.954478,-0.270633
-88.68887329,140.13714600,-58.41595459,0.686591,-0.634154,-0.355585
-88.60962677,144.74940491,-60.11102295,0.801250,0.396611,-0.447994
-88.67933655,144.31657410,-60.58190155,0.844198,0.380594,-0.377462
-88.58232880,145.65029907,-59.06473923,0.773707,0.441420,-0.454451
-88.53746033,138.82258606,-55.11657715,0.643203,-0.733532,-0.219592
-88.39953613,139.48110962,-56.49338531,0.722689,-0.636920,-0.268427
-88.49922180,143.54978943,-61.10124207,0.928359,0.293390,-0.228192
-88.54037476,138.67427063,-48.38496780,-0.088480,-0.987433,0.130950
-88.62605286,140.62351990,-59.20240402,0.757629,-0.578232,-0.302731
-88.55943298,141.05955505,-43.62316513,-0.816561,-0.383609,0.431361
-88.33464050,141.58554077,-59.84560394,0.872502,-0.356030,-0.334638
-88.05509949,141.13763428,-58.70978928,0.784717,-0.487010,-0.383460
-88.01050568,138.83132935,-47.15291214,-0.094734,-0.984515,0.147497
-88.11167145,149.45390320,-53.82079697,0.631995,0.564582,-0.530876
-88.13197327,150.93331909,-50.63518906,0.089344,0.985164,-0.146524
-87.89518738,147.76828003,-42.15679932,-0.767329,0.365008,0.527234
-87.95703125,146.21400452,-40.95260620,-0.853637,0.290698,0.432202
-87.81135559,151.06698608,-48.06686020,-0.317470,0.935917,0.152550
-88.04985809,140.19551086,-43.54456329,-0.760878,-0.526260,0.379624
-87.73825836,144.71978760,-40.14699554,-0.815610,0.043518,0.576963
-87.80165863,144.20666504,-40.24731827,-0.842661,-0.084124,0.531832
-87.89724731,143.14872742,-40.93415833,-0.819512,-0.303581,0.486044
-87.49040985,144.98355103,-58.20529175,0.730980,0.469087,-0.495607
-87.58634186,138.99717712,-52.51210785,0.588334,-0.790999,-0.167879
-87.41396332,147.48846436,-55.49287796,0.706067,0.559869,-0.433608
-87.49884796,147.54231262,-41.25673676,-0.802866,0.423154,0.419936
-87.41465759,141.09286499,-41.59563446,-0.783986,-0.389569,0.483324
-87.34399414,139.63761902,-43.02020645,-0.647270,-0.695694,0.311529
-87.47174072,146.38485718,-56.76808548,0.754866,0.465418,-0.462129
-87.09728241,149.03767395,-53.04539490,0.542929,0.657230,-0.522758
-87.16084290,142.46745300,-40.15131378,-0.805860,-0.335378,0.487967
-87.06947327,141.89714050,-40.38523483,-0.814406,-0.327344,0.479155
-87.12492371,142.03828430,-40.38958740,-0.815246,-0.324515,0.479650
-86.86597443,138.99053955,-45.07336807,-0.105172,-0.990464,0.088992
-87.20184326,147.75811768,-40.93956375,-0.752220,0.455941,0.475693
-87.15303802,149.27722168,-42.51678848,-0.676068,0.619867,0.398368
-86.96867371,143.51165771,-39.31834793,-0.772102,-0.201887,0.602578
-86.75106812,142.20980835,-39.66307831,-0.805433,-0.305400,0.507945
-86.96232605,145.08119202,-39.15857315,-0.805441,0.061083,0.589520
-86.89250946,140.05581665,-41.69853973,-0.733569,-0.498430,0.462000
-86.51364899,139.94572449,-41.18059921,-0.755009,-0.502793,0.420905
-86.62965393,138.95448303,-49.15529251,0.382285,-0.921509,-0.068409
-86.57675171,148.83900452,-52.80295181,0.520103,0.661490,-0.540301
-86.41628265,148.98683167,-41.05286026,-0.668407,0.581297,0.464032
-86.39094543,142.13047791,-56.35967636,0.847805,-0.388773,-0.360669
-86.35395813,147.77360535,-39.79667282,-0.745935,0.469297,0.472590
-86.25679016,150.40065002,-43.10971832,-0.629196,0.727955,0.272386
-86.11577606,141.83213806,-55.40426254,0.790322,-0.484495,-0.375041
-86.06349182,148.88095093,-52.23286057,0.538868,0.676522,-0.501936
-86.06714630,145.84756470,-38.17389679,-0.817441,0.199413,0.540394
-85.63431549,151.21992493,-46.94999695,0.061495,0.993990,-0.090566
-86.15013123,139.10363770,-48.41054916,0.456527,-0.883372,-0.106005
-85.94031525,139.03366089,-46.36909103,0.234922,-0.970437,-0.055348
-86.00769806,151.21801758,-46.14643478,-0.145110,0.987910,0.054561
-86.04211426,142.89131165,-56.20698929,0.878214,-0.225145,-0.421960
-85.84143829,150.31947327,-49.37708282,0.423696,0.730340,-0.535803
-85.92945862,145.09132385,-37.68252563,-0.802270,0.193336,0.564786
-85.80988312,144.51525879,-55.67509079,0.849913,0.193366,-0.490161
-85.65309906,140.66928101,-38.92634201,-0.790667,-0.399376,0.464052
-85.62500000,142.28625488,-37.88782501,-0.806229,-0.267699,0.527571
-85.71404266,139.10017395,-46.51505280,0.311837,-0.946037,-0.088156
-85.52758789,151.14491272,-44.10520172,-0.355433,0.926322,0.124882
-85.61389923,149.99534607,-49.60495758,0.430741,0.737705,-0.519859
-85.59242249,145.11183167,-55.11567688,0.779603,0.269317,-0.565409
-85.48917389,143.03352356,-37.33909988,-0.825352,-0.212059,0.523283
-85.35552216,142.03028870,-53.86867905,0.781072,-0.530872,-0.328788
-85.30796051,139.50473022,-39.68275070,-0.667842,-0.658045,0.347800
-85.49382782,145.52374268,-37.23545074,-0.792056,0.197631,0.577572
-85.37660217,149.20912170,-39.91292572,-0.632693,0.578703,0.514590
-85.28635406,148.79112244,-39.33016968,-0.622109,0.601878,0.500722
-85.36254883,146.90351868,-53.28839111,0.609990,0.593092,-0.525504
-85.37020111,151.16644287,-47.13391495,0.178529,0.965621,-0.188954
-85.23950195,142.42057800,-54.21476364,0.806962,-0.479084,-0.345386
-85.22490692,149.40499878,-50.18239594,0.524051,0.732349,-0.434781
-85.13453674,139.30337524,-46.14571762,0.448776,-0.881679,-0.145744
-84.96060181,145.73170471,-36.57848740,-0.791332,0.190591,0.580920
-85.25115204,141.34933472,-52.59801483,0.706984,-0.605283,-0.365795
-85.00702667,143.30044556,-36.47070694,-0.819689,-0.156771,0.550938
-84.86500549,140.02279663,-48.14492416,0.624219,-0.729586,-0.279382
-84.73226929,147.69596863,-37.38673782,-0.663257,0.512135,0.545718
-84.41237640,149.73020935,-48.89641571,0.574325,0.703424,-0.418744
-84.59272003,146.30291748,-36.32025528,-0.763032,0.280783,0.582188
-84.69499969,148.29826355,-51.10177994,0.728631,0.560865,-0.393099
-84.45647430,151.02609253,-42.17194748,-0.239138,0.946987,0.214541
-84.51203918,139.85330200,-46.57326126,0.626303,-0.745004,-0.229593
-84.55752563,145.20516968,-35.86033630,-0.790988,0.125671,0.598786
-84.21845245,149.78471375,-39.37612152,-0.565135,0.672460,0.477933
-84.19161987,148.06571960,-50.45387650,0.706355,0.556774,-0.437109
-84.08794403,145.97557068,-35.49529648,-0.765902,0.208882,0.608080
-83.90136719,140.61430359,-47.35837555,0.652224,-0.712527,-0.258668
-84.24463654,147.72755432,-51.04709244,0.730255,0.566153,-0.382358
-84.34666443,144.39196777,-35.49750900,-0.783829,0.058537,0.618211
-84.22812653,143.07810974,-52.78031921,0.852514,-0.333863,-0.402188
-84.06026459,143.79988098,-52.82896423,0.898671,-0.155732,-0.410046
-84.08041382,148.18542480,-37.08208466,-0.630029,0.562465,0.535440
-83.95441437,141.75515747,-50.29500580,0.702042,-0.660651,-0.265852
-83.81773376,145.83605957,-35.12796783,-0.761035,0.192181,0.619590
-83.73943329,147.20352173,-50.87357330,0.753157,0.510309,-0.415139
-83.59346008,150.76666260,-40.34712601,-0.380473,0.861070,0.337342
-83.86800385,143.96614075,-34.75882339,-0.843493,0.102024,0.527363
-83.69042206,138.94335938,-41.46749878,0.120008,-0.978622,-0.167022
-83.69125366,138.82594299,-40.44471359,-0.033274,-0.997156,-0.067622
-83.72843170,140.87991333,-47.62381363,0.674220,-0.680626,-0.286664
-83.64270782,145.48796082,-52.02683640,0.892859,0.138130,-0.428629
-83.56851196,138.98533630,-37.13632584,-0.677115,-0.692899,0.247802
-83.42484283,139.05172729,-36.56694031,-0.719930,-0.613154,0.325182
-83.65966034,142.81759644,-34.42671585,-0.851335,-0.154387,0.501391
-83.44922638,143.42881775,-33.99970245,-0.828004,-0.009549,0.560642
-83.48688507,149.15068054,-48.14429474,0.665757,0.665757,-0.336948
-83.09515381,151.08296204,-41.10511398,-0.073752,0.992820,0.094176
-83.22927856,150.03416443,-38.24360275,-0.647129,0.620374,0.443125
-83.26204681,149.90895081,-38.14656830,-0.645920,0.605654,0.464727
-83.27349091,144.78704834,-34.02286530,-0.815497,0.225759,0.532914
-83.23516846,151.05978394,-41.01866913,-0.134864,0.982930,0.125144
-82.94239044,138.80918884,-40.33472824,0.073459,-0.981461,-0.177024
-83.11075592,144.89382935,-51.14588547,0.866322,0.006695,-0.499441
-83.17922974,139.39001465,-35.67657471,-0.794943,-0.420852,0.436977
-83.07942200,145.69337463,-50.93577194,0.839428,0.204185,-0.503657
-83.10101318,146.74882507,-50.24876022,0.762198,0.437649,-0.476988
-82.91242981,148.43341064,-48.35629654,0.667554,0.590593,-0.453401
-82.72698212,144.32147217,-33.12173462,-0.814169,0.121759,0.567718
-82.75463867,142.24250793,-48.31758118,0.706815,-0.622322,-0.336346
-82.76118469,150.65773010,-44.51780319,0.597145,0.770860,-0.221797
-82.76143646,141.85469055,-33.41516113,-0.838185,-0.223617,0.497435
-82.63627625,138.42222595,-36.90333939,-0.380871,-0.924606,-0.006412
-82.64920807,148.07295227,-48.39701462,0.711158,0.524625,-0.467999
-82.46886444,142.44432068,-32.72358322,-0.867287,-0.125131,0.481826
-82.27268219,149.57794189,-45.69309616,0.667106,0.583508,-0.463128
-82.45093536,150.65429688,-38.10710907,-0.459008,0.814780,0.354183
-82.46630096,150.32511902,-44.77730179,0.642082,0.715372,-0.275633
-82.42427826,139.57220459,-42.10503387,0.480053,-0.797948,-0.364455
-82.34588623,143.65527344,-32.41709137,-0.868403,0.031355,0.494867
-82.29096222,143.98701477,-49.45297623,0.843667,-0.190312,-0.502004
-82.10932159,150.20555115,-37.09465408,-0.540969,0.635344,0.551081
-82.11389160,149.83499146,-36.70380020,-0.592335,0.602461,0.534958
-82.13854980,144.98979187,-32.43880463,-0.797867,0.312485,0.515521
-81.64183044,149.61585999,-35.98465729,-0.516730,0.641284,0.567225
-81.77365875,139.17163086,-40.48686981,0.374792,-0.862175,-0.340860
-81.58061981,150.79565430,-42.03963089,0.466834,0.867398,-0.172301
-81.80687714,149.44827271,-45.21142197,0.650154,0.610041,-0.452935
-81.70710754,145.45799255,-32.18390656,-0.707106,0.425588,0.564691
-81.44619751,150.97363281,-38.80779266,-0.031493,0.995815,0.085790
-81.56391144,141.98898315,-31.21933174,-0.847184,-0.136076,0.513578
-81.52739716,149.13952637,-45.21503830,0.652432,0.585344,-0.481357
-81.18536377,144.93333435,-31.17914772,-0.691292,0.394317,0.605499
-81.40046692,137.97998047,-33.96533203,-0.680704,-0.714207,0.162943
-81.13964844,148.10360718,-33.88525772,-0.559835,0.613958,0.556453
-81.26988983,148.71652222,-45.36500931,0.675449,0.534661,-0.507844
-80.92909241,150.10131836,-42.80256271,0.623672,0.717142,-0.311030
-80.78893280,140.95639038,-30.23286819,-0.848423,-0.183403,0.496529
-80.81872559,144.92282104,-30.76220512,-0.666960,0.402162,0.627240
-80.77762604,150.82977295,-37.69134521,-0.027594,0.972999,0.229153
-80.98165131,146.93913269,-32.59652328,-0.552211,0.575853,0.602873
-80.96950531,150.75115967,-40.83308792,0.415380,0.879890,-0.230766
-80.85996246,150.76539612,-40.56910324,0.398710,0.887834,-0.229740
-80.99766541,141.32240295,-43.53051758,0.593995,-0.677188,-0.434265
-80.73069000,147.97854614,-45.33603287,0.731846,0.513779,-0.447698
-80.85572815,150.79718018,-40.41369247,0.358599,0.907385,-0.219224
-80.67550659,150.93977356,-39.62084961,0.215631,0.963153,-0.160743
-80.56899261,145.21444702,-47.02275085,0.786087,0.079330,-0.613004
-80.42314911,147.53555298,-45.35162735,0.754278,0.491349,-0.435477
-80.35283661,141.28610229,-42.62743378,0.601337,-0.674630,-0.428099
-80.47338867,137.38589478,-32.14836502,-0.788473,-0.602080,0.125741
-80.38727570,147.61024475,-32.75776291,-0.531480,0.598970,0.598970
-80.12549591,138.73674011,-37.85088730,0.311104,-0.849732,-0.425640
-80.50726318,150.11009216,-41.86067581,0.551388,0.758361,-0.347649
-80.30337524,145.73934937,-30.79321480,-0.646218,0.468298,0.602577
-80.28416443,137.66699219,-31.00184822,-0.879187,-0.310212,0.361662
-80.01141357,141.48532104,-42.45597458,0.603457,-0.673279,-0.427241
-80.01528931,146.29914856,-45.66958618,0.826350,0.295236,-0.479564
-79.86772919,140.38349915,-40.42045212,0.537512,-0.688216,-0.487277
-79.83097839,150.75212097,-39.35975647,0.307662,0.896232,-0.319552
-80.00817108,150.06324768,-35.19378662,-0.336146,0.853531,0.398108
-79.79078674,140.05184937,-28.80931091,-0.860593,-0.150494,0.486549
-79.98209381,150.92813110,-38.73248291,0.127762,0.988107,-0.085566
-79.92361450,146.62455750,-31.12812233,-0.593866,0.546492,0.590482
-79.68969727,146.21658325,-30.56269455,-0.551897,0.535019,0.639660
-79.76049805,137.93711853,-29.77459908,-0.867478,-0.252825,0.428440
-79.75219727,144.66741943,-45.50346375,0.867658,-0.150200,-0.473931
-79.63771057,149.60031128,-34.06753159,-0.465966,0.721336,0.512397
-79.59790039,141.70904541,-42.22043610,0.597349,-0.680546,-0.424301
-79.42207336,142.03244019,-42.48718643,0.607936,-0.651480,-0.453859
-79.65392303,150.20248413,-35.24561691,-0.239497,0.910089,0.338199
-79.37650299,145.32072449,-29.56639671,-0.621439,0.510287,0.594493
-79.66046143,138.08979797,-29.46587944,-0.865174,-0.272173,0.421183
-79.41082001,140.29685974,-39.85396576,0.496379,-0.690251,-0.526462
-79.60579681,150.50886536,-39.64929199,0.426928,0.780808,-0.456148
-79.44029999,136.46466064,-31.13325882,-0.587059,-0.809115,0.026369
-79.44273376,137.14436340,-29.66236496,-0.834353,-0.376957,0.402193
-79.21278381,150.27633667,-39.63082123,0.484471,0.707560,-0.514438
-79.55833435,142.22808838,-28.27045059,-0.790568,0.103753,0.603521
-79.42564392,138.55567932,-28.67473221,-0.842434,-0.250122,0.477226
-79.27249146,138.21989441,-28.59196472,-0.840792,-0.259769,0.474963
-79.27705383,144.98539734,-44.70888138,0.858505,-0.039963,-0.511245
-79.15676117,147.82601929,-43.15155792,0.761111,0.414110,-0.499223
-79.10336304,139.79742432,-38.91559601,0.455141,-0.726571,-0.514724
-79.03843689,144.66206360,-28.62772179,-0.646334,0.435900,0.626293
-79.12072754,142.35015869,-27.72217178,-0.790101,0.161030,0.591447
-79.13357544,139.45443726,-27.89031219,-0.816300,-0.219007,0.534500
-78.81864929,148.45075989,-42.03675842,0.742560,0.536020,-0.401605
-79.06227875,141.90242004,-41.78871918,0.596999,-0.676821,-0.430704
-78.62981415,145.72087097,-43.67848206,0.828041,0.124573,-0.546654
-78.36273956,144.47410583,-27.85073090,-0.560967,0.451104,0.694134
-78.57358551,142.91169739,-27.25497055,-0.701783,0.290670,0.650394
-78.59086609,137.55989075,-27.83598709,-0.798614,-0.260995,0.542307
-78.48658752,149.38079834,-32.68315887,-0.337789,0.816721,0.467830
-78.41943359,145.33653259,-28.59173203,-0.530749,0.561078,0.635214
-78.40606689,137.16447449,-27.76600266,-0.813838,-0.262980,0.518180
-78.21260834,138.50323486,-36.13704300,0.249425,-0.819539,-0.515891
-78.25296021,135.71174622,-30.10910988,-0.458125,-0.880571,-0.121310
-78.27782440,143.94317627,-42.75460434,0.792441,-0.262055,-0.550786
-78.40573883,135.96401978,-28.65387917,-0.829527,-0.491514,0.265139
-78.01724243,141.52038574,-40.08437729,0.545301,-0.606077,-0.579066
-78.24357605,144.59403992,-27.83270454,-0.528648,0.481954,0.698750
-78.19430542,148.70097351,-40.56308365,0.667613,0.577260,-0.470174
-78.01290894,139.26480103,-37.15492249,0.370061,-0.751533,-0.546125
-78.15256500,148.43861389,-31.33480072,-0.503288,0.563884,0.654779
-77.97599792,146.03906250,-28.91830063,-0.475688,0.630329,0.613520
-78.06048584,143.16522217,-26.86050224,-0.634748,0.365759,0.680673
-78.00068665,144.43682861,-42.52893066,0.808863,-0.156988,-0.566653
-78.17707062,136.16780090,-31.93129349,-0.114961,-0.912764,-0.391976
-77.84221649,146.13809204,-42.35486221,0.793176,0.221100,-0.567438
-77.91270447,137.76841736,-26.77825737,-0.835959,-0.204077,0.509436
-77.75107574,140.81457520,-39.06518555,0.517732,-0.688634,-0.507679
-77.64693451,137.43983459,-26.45652771,-0.849530,-0.205992,0.485660
-77.57611847,149.72286987,-33.11305237,-0.055326,0.948255,0.312654
-77.58904266,142.99299622,-26.33166122,-0.638469,0.387701,0.664865
-77.25363159,143.12371826,-26.07136917,-0.623551,0.424015,0.656807
-77.65967560,149.35513306,-32.16035843,-0.198143,0.885041,0.421238
-77.70916748,144.80371094,-27.65371704,-0.432935,0.549047,0.714923
-77.30346680,149.53721619,-37.70481110,0.603826,0.749632,-0.271009
-77.45457458,148.79188538,-39.52728653,0.610434,0.630614,-0.479266
-77.55977631,138.52296448,-35.86748886,0.264351,-0.805566,-0.530266
-77.50629425,148.54444885,-30.85423851,-0.494375,0.672014,0.551353
-77.26442719,148.86987305,-31.12406158,-0.330240,0.792895,0.512112
-77.19404602,140.46682739,-37.91311264,0.525710,-0.663437,-0.532429
-76.89400482,141.76473999,-25.03504562,-0.678638,0.273052,0.681831
-76.87559509,147.25076294,-29.18918800,-0.456359,0.600120,0.656956
-77.13468933,138.33042908,-25.29132462,-0.828845,-0.152721,0.538230
-77.03329468,145.26539612,-27.64204407,-0.470026,0.573733,0.670750
-76.99811554,138.20881653,-35.05121613,0.295867,-0.821852,-0.486849
-77.03939056,135.99006653,-26.09617424,-0.837144,-0.234156,0.494328
-77.19700623,134.75802612,-27.93575287,-0.625507,-0.780158,-0.009666
-76.84706879,149.63418579,-32.77266312,0.013406,0.961575,0.274214
-76.87364960,137.69392395,-25.01122665,-0.831360,-0.117934,0.543077
-76.83256531,135.57205200,-25.92902756,-0.843833,-0.229583,0.485014
-76.64844513,136.38621521,-31.99018097,0.199566,-0.808930,-0.552997
-76.65032959,141.44091797,-38.57149887,0.626144,-0.585638,-0.514754
-76.38597107,141.63465881,-24.50907135,-0.649631,0.322385,0.688511
-76.68650055,140.29852295,-37.30204773,0.482870,-0.610738,-0.627563
-76.46482086,140.51849365,-24.33620644,-0.759509,0.107658,0.641527
-76.74259949,134.83697510,-26.24763870,-0.836442,-0.392230,0.382779
-76.37669373,138.99008179,-24.02958488,-0.807605,-0.103315,0.580603
-76.48883820,149.42996216,-36.35127258,0.488605,0.837828,-0.243537
-76.43232727,135.67999268,-25.16514015,-0.852105,-0.222486,0.473728
-75.99872589,149.63978577,-33.42965698,0.299238,0.953268,0.041666
-76.23281860,140.12742615,-36.79970551,0.464727,-0.605654,-0.645920
-76.10938263,140.95271301,-23.94498444,-0.781478,0.188105,0.594902
-76.20854950,146.19741821,-40.04852676,0.816244,0.209020,-0.538569
-76.25804901,148.05494690,-29.63617897,-0.234297,0.668296,0.706035
-75.90985870,148.71835327,-30.35926056,-0.095503,0.853825,0.511725
-75.61117554,133.67008972,-26.91299820,-0.394862,-0.861936,-0.318041
-75.63493347,134.51814270,-24.27800179,-0.836471,-0.201177,0.509748
-75.77564240,133.94482422,-24.81432915,-0.845565,-0.351668,0.401683
-75.43041992,134.38017273,-24.01091957,-0.826109,-0.225303,0.516510
-75.64173126,135.56993103,-23.91299820,-0.833824,-0.214151,0.508800
-75.14257050,143.99736023,-24.98944473,-0.510519,0.564435,0.648679
-75.37427521,147.68795776,-37.36065674,0.811414,0.430514,-0.395304
-75.22407532,143.50694275,-38.64373016,0.731263,-0.306970,-0.609118
-75.11208344,139.37196350,-35.17318344,0.488914,-0.633404,-0.599802
-74.98151398,148.75753784,-30.38237000,0.041380,0.906359,0.420476
-75.07266235,142.68016052,-37.93676758,0.675051,-0.391166,-0.625536
-74.90479279,148.82617188,-35.08263016,0.571636,0.771154,-0.280276
-75.01686859,135.54539490,-22.90117264,-0.832950,-0.162418,0.528975
-74.85077667,140.63011169,-22.49820518,-0.639860,0.254364,0.725175
-74.46624756,140.43698120,-35.72540283,0.504329,-0.612279,-0.608906
-74.50646210,140.85058594,-36.18832016,0.521999,-0.596329,-0.609843
-74.79398346,133.65171814,-27.34154701,-0.074474,-0.858564,-0.507269
-74.64707184,133.20614624,-23.46095467,-0.815521,-0.449888,0.364043
-74.47669220,147.64118958,-35.90327835,0.704801,0.491528,-0.511522
-74.26438141,142.21200562,-22.82419777,-0.538861,0.559132,0.630079
-74.36649323,135.14079285,-21.97018242,-0.812231,-0.176310,0.556054
-74.26312256,145.69242859,-26.27304459,-0.279845,0.711605,0.644442
-74.05178070,132.70158386,-25.71525955,-0.177836,-0.894962,-0.409167
-74.05883026,134.05583191,-21.85253716,-0.819310,-0.175889,0.545705
-74.12833405,143.84075928,-37.24087524,0.800486,-0.106829,-0.589754
-74.00278473,143.54499817,-23.85754967,-0.438927,0.595806,0.672576
-73.99047852,142.55926514,-22.94448853,-0.488914,0.599802,0.633404
-73.68282318,143.31805420,-23.44228554,-0.470913,0.601629,0.645201
-73.67895508,138.01255798,-20.82154655,-0.756917,0.046864,0.651829
-73.77642059,141.91171265,-36.41891098,0.641556,-0.399522,-0.654819
-73.86467743,138.30142212,-21.04136848,-0.748771,0.064673,0.659666
-73.90668488,146.39425659,-26.85573387,-0.330430,0.672254,0.662488
-73.90301514,146.94647217,-35.74052048,0.751138,0.468434,-0.465147
-73.61486816,133.15802002,-26.54711151,0.057672,-0.831314,-0.552803
-73.79157257,134.87203979,-28.80297470,0.185537,-0.759014,-0.624078
-73.58802032,135.60636902,-20.82285309,-0.784937,-0.064339,0.616226
-73.49277496,132.82287598,-26.04807091,-0.020548,-0.842467,-0.538357
-73.70102692,147.49304199,-34.79306412,0.757837,0.495950,-0.423930
-73.40285492,136.97195435,-20.46548080,-0.802769,-0.043583,0.594696
-73.34483337,132.86920166,-21.28069115,-0.818525,-0.262487,0.510996
-73.11521149,134.54716492,-28.21571732,0.195377,-0.752280,-0.629208
-73.14830780,138.84991455,-33.32566833,0.388475,-0.633132,-0.669500
-73.26373291,142.31358337,-36.10691071,0.700566,-0.265294,-0.662440
-73.41201782,141.59893799,-35.82938004,0.617798,-0.450373,-0.644586
-73.08956909,146.54695129,-26.52393341,-0.306716,0.737082,0.602192
-73.03672028,131.36195374,-22.47528648,-0.719485,-0.694338,0.015368
-72.77482605,148.04718018,-31.60898972,0.593889,0.791353,-0.145106
-73.10243225,138.11721802,-20.15661240,-0.797161,0.076125,0.598948
-72.73964691,139.34716797,-19.84766769,-0.757043,0.201981,0.621361
-72.96170807,131.32551575,-22.93694878,-0.604433,-0.785615,-0.132173
-72.83785248,132.79811096,-25.97141075,0.058287,-0.794699,-0.604199
-72.75252533,141.13233948,-20.89046478,-0.550281,0.526722,0.647885
-72.64885712,133.44477844,-26.74815750,0.138982,-0.769632,-0.623178
-72.54843140,143.50630188,-22.75694466,-0.395885,0.654287,0.644348
-72.54335022,136.52975464,-19.31450272,-0.784890,-0.085598,0.613694
-72.51856995,131.87977600,-24.67390251,-0.126500,-0.850604,-0.510363
-72.65474701,147.84573364,-28.73135757,0.187198,0.935989,0.298130
-72.45588684,142.43707275,-21.76805496,-0.430671,0.573673,0.696722
-72.21688080,143.81457520,-34.95729828,0.774843,0.079657,-0.627116
-72.18643188,137.58169556,-18.80918694,-0.761489,0.004146,0.648164
-72.48963928,147.86755371,-31.44630241,0.607094,0.776657,-0.168049
-72.36243439,147.46717834,-32.47984314,0.723084,0.640808,-0.257905
-72.35549164,145.83062744,-25.39617920,-0.085792,0.757585,0.647074
-72.10299683,145.36251831,-24.83823776,-0.178923,0.738630,0.649933
-72.23793030,141.81719971,-21.13248062,-0.460734,0.591414,0.661781
-72.32233429,147.74079895,-28.66225815,0.229735,0.945078,0.232486
-72.45998383,146.29045105,-25.95419884,-0.116644,0.772214,0.624563
-72.08185577,140.91662598,-34.35858154,0.616534,-0.439427,-0.653292
-71.60544586,142.76214600,-21.52872467,-0.413221,0.595768,0.688701
-71.65043640,147.02906799,-31.66302872,0.687808,0.665362,-0.290194
-71.68412781,147.25433350,-27.40021324,0.122997,0.919025,0.374520
-71.83068085,144.73968506,-34.25833511,0.806427,0.213511,-0.551442
-71.67462921,131.99830627,-19.06231308,-0.784805,-0.126103,0.606777
-71.94681549,147.53683472,-31.00244522,0.643792,0.744719,-0.175858
-71.72490692,131.09390259,-23.54343033,-0.114685,-0.834731,-0.538583
-71.62806702,144.41528320,-23.36808014,-0.352389,0.780406,0.516516
-71.91795349,131.02198792,-23.34368134,-0.226118,-0.845288,-0.484106
-71.67765045,140.54222107,-33.57608414,0.667853,-0.456952,-0.587510
-71.62324524,135.45028687,-18.28416634,-0.785701,-0.184602,0.590420
-71.25685120,139.72570801,-32.57991028,0.606198,-0.449221,-0.656297
-71.36061859,140.17414856,-32.96368027,0.635026,-0.435018,-0.638359
-71.39028931,136.98347473,-17.86042023,-0.719589,0.120676,0.683833
-71.39950562,135.21891785,-18.09366417,-0.736390,-0.209290,0.643372
-71.24876404,141.06080627,-33.45083237,0.694085,-0.362631,-0.621888
-71.16660309,131.37413025,-18.48930740,-0.821658,-0.072625,0.565335
-71.18910217,129.84478760,-19.46681213,-0.779795,-0.561516,0.276803
-70.97606659,130.32455444,-18.48292542,-0.817508,-0.290286,0.497409
-70.81922913,138.14311218,-31.08354568,0.448242,-0.558219,-0.698191
-70.99431610,135.55514526,-28.65757179,0.296894,-0.714151,-0.633910
-70.73270416,133.17372131,-25.89847374,0.172480,-0.721974,-0.670078
-70.77962494,132.99041748,-25.71103287,0.172769,-0.729297,-0.662025
-70.63613129,139.46578979,-31.90673065,0.514724,-0.455141,-0.726571
-71.09023285,134.68730164,-17.94882393,-0.725226,-0.182456,0.663896
-71.05130768,142.56437683,-21.03645706,-0.387941,0.609151,0.691691
-70.97259521,133.76924133,-26.61512947,0.237160,-0.714622,-0.658081
-70.87664032,147.12728882,-27.70136833,0.349159,0.920253,0.176700
-71.05633545,142.49111938,-33.61732101,0.773429,0.032285,-0.633061
-70.75167084,134.45970154,-27.26586151,0.290670,-0.701783,-0.650394
-70.72869873,145.88507080,-31.73654938,0.735986,0.451515,-0.504440
-70.66968536,146.81648254,-29.68686485,0.652224,0.712527,-0.258668
-70.62416840,130.74855042,-17.78551102,-0.805802,-0.183620,0.562999
-70.56309509,131.03445435,-17.61062813,-0.804110,-0.138230,0.578186
-70.60102844,135.17849731,-17.24091148,-0.761176,-0.161920,0.628008
-70.45921326,134.30548096,-26.97695541,0.251849,-0.692188,-0.676349
-70.20004272,144.34199524,-22.61333084,-0.197466,0.836592,0.511000
-70.59339142,138.23361206,-17.51367378,-0.605409,0.300296,0.737090
-70.46690369,136.08137512,-28.96690178,0.343890,-0.692669,-0.633995
-70.36712646,140.02679443,-18.47468948,-0.465363,0.495172,0.733650
-70.15925598,143.75230408,-21.72749710,-0.288731,0.744959,0.601391
-70.27336121,129.75028992,-21.93503571,-0.195511,-0.819935,-0.538035
-70.49854279,132.38571167,-24.94072914,0.158605,-0.762813,-0.626866
-70.23120117,132.47296143,-24.98480034,0.142566,-0.766853,-0.625788
-70.32224274,144.61914063,-31.87299156,0.810206,0.304814,-0.500654
-70.27787018,134.98567200,-16.87445259,-0.799535,-0.150940,0.581344
-70.14166260,140.15232849,-31.91909790,0.591893,-0.375467,-0.713223
-70.02845001,141.71900940,-32.44341660,0.767955,-0.091805,-0.633891
-69.95843506,146.39660645,-26.61087036,0.279698,0.898288,0.338893
-69.76168823,136.94892883,-29.43372345,0.403050,-0.628626,-0.665116
-69.86970520,144.05822754,-22.02302170,-0.236632,0.811971,0.533581
-70.06685638,145.71347046,-30.84028625,0.801483,0.475131,-0.363147
-69.97039032,141.74794006,-19.67506981,-0.381305,0.658618,0.648714
-69.96305084,146.55618286,-28.74812317,0.626446,0.736902,-0.254050
-69.84553528,146.17300415,-29.25664902,0.672399,0.649495,-0.355014
-69.93442535,146.33514404,-29.13733292,0.661039,0.674033,-0.329708
-69.86829376,145.73907471,-30.15948677,0.765027,0.581294,-0.277184
-69.92767334,136.43014526,-16.22703362,-0.762186,0.107620,0.638349
-70.02191925,146.64376831,-28.58057785,0.601516,0.773818,-0.198454
-69.69708252,129.16773987,-17.07843781,-0.852163,-0.251533,0.458857
-69.70920563,130.15805054,-16.70242310,-0.812231,-0.176310,0.556054
-69.64540863,137.25248718,-16.23038292,-0.625871,0.372894,0.685008
-69.62133026,143.56617737,-31.49458694,0.770130,0.263010,-0.581141
-69.54459381,138.15411377,-16.69181442,-0.496082,0.417495,0.761315
-69.64070129,131.29144287,-16.43609810,-0.785661,-0.023723,0.618202
-69.31507874,139.12734985,-30.74117279,0.545424,-0.432692,-0.717837
-69.38092804,143.76719666,-21.39401054,-0.215084,0.769041,0.601926
-69.25096130,144.20448303,-30.70366478,0.753186,0.341768,-0.562055
-69.28857422,141.16667175,-18.70826721,-0.372192,0.601737,0.706672
-68.82640076,135.82438660,-27.84616089,0.279473,-0.627617,-0.726630
-69.03858948,130.95764160,-15.61067677,-0.809017,-0.087968,0.581165
-69.00116730,128.57014465,-16.06970787,-0.812004,-0.206442,0.545923
-69.17060089,131.95343018,-24.17902946,0.095512,-0.709727,-0.697972
-68.85181427,133.18635559,-25.46898842,0.213156,-0.698592,-0.683033
-68.81105042,139.13844299,-16.88513565,-0.381500,0.514619,0.767870
-68.79833984,129.54983521,-21.82841873,0.061896,-0.729797,-0.680856
-68.73960876,132.52737427,-15.12038517,-0.791073,-0.088542,0.605280
-68.38920593,139.90777588,-17.26379585,-0.351043,0.602489,0.716782
-68.67979431,145.10705566,-24.18629456,0.203249,0.922438,0.328325
-68.56694794,136.52369690,-28.34199333,0.376115,-0.609338,-0.698029
-68.37133026,130.26672363,-22.52667427,0.140023,-0.694092,-0.706137
-68.25028229,129.21641541,-21.43062210,0.079898,-0.684215,-0.724890
-68.55801392,145.37519836,-28.16052437,0.751998,0.613844,-0.240200
-68.52388000,136.40374756,-28.20807266,0.357582,-0.602501,-0.713531
-68.64679718,142.62570190,-19.91797256,-0.289688,0.718619,0.632193
-68.23376465,130.71047974,-14.58158398,-0.731789,-0.162789,0.661805
-68.37968445,143.43339539,-30.11988449,0.743046,0.331862,-0.581163
-68.31741333,127.47592926,-19.23590851,-0.322281,-0.872144,-0.368103
-67.93162537,141.24736023,-18.15307808,-0.312114,0.552202,0.773083
-68.01659393,128.78086853,-21.01630974,0.064813,-0.661088,-0.747504
-67.83311462,135.88674927,-27.56073570,0.287644,-0.564164,-0.773938
-68.18792725,144.57835388,-23.13615417,0.280319,0.905535,0.318478
-67.93527985,127.16149139,-18.76991272,-0.296961,-0.881838,-0.366302
-68.09117889,145.01826477,-27.36053276,0.778629,0.606272,-0.161773
-68.20903015,134.11827087,-14.26253891,-0.713802,-0.029566,0.699723
-67.84307098,129.33695984,-21.48676491,0.120663,-0.680775,-0.722486
-67.84657288,130.05503845,-14.37239456,-0.721486,-0.114075,0.682967
-67.50624847,144.93278503,-24.71811867,0.366002,0.912869,0.180865
-67.73645020,128.85412598,-14.31808662,-0.796659,-0.106708,0.594936
-67.50320435,141.69403076,-29.50034714,0.769784,0.064507,-0.635036
-67.37550354,131.66728210,-23.64457512,0.179265,-0.687949,-0.703271
-67.64545441,138.72802734,-15.96847248,-0.389793,0.583867,0.712153
-67.52344513,133.88537598,-13.58196163,-0.656536,0.142725,0.740669
-67.57284546,142.78887939,-29.23498154,0.812834,0.290859,-0.504680
-67.68878937,138.15023804,-15.48284626,-0.388216,0.555297,0.735482
-67.53127289,130.02766418,-22.11737442,0.166303,-0.694202,-0.700305
-67.08702087,127.11310577,-19.08820915,-0.113266,-0.861683,-0.494644
-67.01249695,144.72215271,-24.92754555,0.513033,0.857792,0.031466
-67.16084290,137.93820190,-15.12458801,-0.248793,0.514584,0.820552
-66.95906830,125.75409698,-16.71952057,-0.482825,-0.812096,-0.327688
-66.82704926,143.70286560,-26.97440720,0.638842,0.638842,-0.428675
-66.81787109,144.11459351,-26.31367683,0.624503,0.683822,-0.377338
-66.68878174,135.63005066,-13.45534325,-0.440008,0.443255,0.780973
-66.58462524,142.25241089,-28.11664009,0.787585,0.276207,-0.550836
-66.39849854,130.48416138,-12.51639080,-0.718968,-0.050028,0.693240
-66.43876648,130.08959961,-12.59571838,-0.736104,-0.107687,0.668247
-66.27056885,130.23477173,-21.95620155,0.172586,-0.688818,-0.704091
-66.00508118,140.40214539,-27.83502388,0.746767,0.089144,-0.659084
-66.34975433,134.11814880,-12.77709389,-0.589165,0.191287,0.785044
-65.94443512,138.36494446,-15.02232742,-0.321688,0.532946,0.782614
-66.10381317,136.68379211,-27.19344711,0.548407,-0.369402,-0.750195
-66.30402374,133.55296326,-25.07805824,0.225313,-0.585814,-0.778496
-66.19618225,136.80616760,-14.02688599,-0.348386,0.512143,0.785072
-66.16136932,141.96128845,-27.61283493,0.796543,0.224269,-0.561447
-66.17066956,139.91827393,-16.18384743,-0.202090,0.609357,0.766710
-66.25083923,124.85203552,-15.56729221,-0.635799,-0.751676,-0.175340
-65.91819763,131.46774292,-23.05874825,0.136716,-0.677569,-0.722640
-66.02539063,124.90835571,-13.68719482,-0.799367,-0.439089,0.410138
-65.69340515,134.64469910,-12.48664856,-0.450763,0.343212,0.824026
-65.53670502,132.84283447,-24.28363419,0.212958,-0.632657,-0.744577
-65.66966248,143.73187256,-24.89387894,0.636136,0.752074,-0.172382
-65.49891663,143.27801514,-21.42983627,0.278032,0.943667,0.179420
-65.76512146,130.14988708,-21.76278687,0.114306,-0.681382,-0.722947
-65.51377106,123.89834595,-14.16729069,-0.795241,-0.605831,0.023676
-65.35609436,126.73715973,-12.31089783,-0.735472,-0.052840,0.675492
-65.27360535,138.95249939,-27.02930832,0.702274,-0.073847,-0.708066
-64.94292450,123.88922119,-15.47531891,-0.439953,-0.746437,-0.499273
-65.22935486,143.48019409,-23.76379776,0.551215,0.834309,-0.009527
-65.15491486,137.74932861,-26.75446320,0.648154,-0.145872,-0.747407
-65.30643463,124.59147644,-16.31975365,-0.373412,-0.777537,-0.505965
-64.95010376,130.24851990,-21.77047920,0.070945,-0.687737,-0.722485
-65.15142822,130.48986816,-11.19923115,-0.737682,-0.104542,0.667006
-64.90615082,123.17465210,-13.48346424,-0.771018,-0.625990,0.116911
-64.78523254,135.53605652,-12.63942528,-0.239511,0.480548,0.843628
-64.86737823,126.66405487,-18.72776794,-0.035325,-0.690952,-0.722037
-64.89982605,141.07299805,-17.07065010,0.070166,0.803324,0.591395
-64.85931396,142.36093140,-19.00001907,0.080208,0.914913,0.395601
-64.69882965,140.42944336,-26.24334717,0.793466,0.217240,-0.568523
-64.60008240,128.72023010,-11.03072071,-0.695446,-0.223480,0.682943
-64.60363770,133.01930237,-11.20269680,-0.550786,0.262055,0.792441
-64.54385376,143.01956177,-23.11220932,0.633201,0.771040,-0.067484
-64.58454132,137.97041321,-26.27109337,0.708844,-0.086230,-0.700075
-64.58288574,138.53807068,-26.33146858,0.721768,-0.050024,-0.690325
-64.07803345,128.22186279,-19.92810249,0.161030,-0.591447,-0.790101
-64.32509613,123.85547638,-15.86330605,-0.370522,-0.736147,-0.566393
-64.34140778,142.85989380,-22.96489525,0.655988,0.749492,-0.089121
-64.03855133,134.82559204,-11.86942768,-0.314543,0.544462,0.777575
-64.40958405,142.70913696,-23.88368607,0.757730,0.614586,-0.219384
-64.07620239,123.44081879,-15.52835083,-0.393329,-0.712600,-0.580942
-63.89250565,125.31313324,-11.02672291,-0.687585,-0.193142,0.699946
-63.98838043,141.76635742,-24.33342171,0.754768,0.475224,-0.452203
-63.83507156,127.71714783,-10.55225658,-0.709354,-0.120456,0.694483
-63.96900558,142.54956055,-22.65071869,0.715971,0.695884,-0.055958
-63.73667908,126.89559937,-18.81716728,0.126062,-0.618445,-0.775651
-63.95936203,129.18411255,-20.63022041,0.123169,-0.636623,-0.761276
-63.57033920,140.28297424,-16.20547676,0.017893,0.824432,0.565679
-63.92669678,137.86926270,-25.59312630,0.695874,-0.009723,-0.718098
-63.60214233,139.78939819,-25.07838058,0.720620,0.237067,-0.651541
-63.83409119,140.69914246,-24.95012283,0.733011,0.331716,-0.593852
-63.62817764,141.26602173,-24.31955719,0.660758,0.463367,-0.590500
-63.45735168,122.76934052,-15.09042931,-0.372492,-0.717088,-0.589096
-63.13828659,130.47682190,-9.55142879,-0.517419,0.034312,0.855044
-63.29026031,132.36141968,-23.41278648,0.216020,-0.484913,-0.847464
-63.42343521,123.38130188,-10.86354160,-0.742114,-0.159350,0.651057
-63.05283356,140.08865356,-15.90723133,-0.015039,0.832587,0.553691
-62.90933990,134.55400085,-11.26145744,-0.272151,0.450510,0.850279
-62.93149948,128.26007080,-9.53691387,-0.667208,-0.117393,0.735563
-63.05524826,140.33282471,-24.25481415,0.707885,0.319115,-0.630131
-62.95641708,124.90093994,-10.19952297,-0.702561,-0.029567,0.711009
-62.61365509,135.18676758,-24.15785027,0.632735,-0.162356,-0.757157
-62.88643646,121.87086487,-14.45904064,-0.411997,-0.696589,-0.587385
-62.67166519,132.20982361,-23.17438889,0.275714,-0.451308,-0.848706
-62.62607574,124.54251099,-9.89051628,-0.638876,-0.073550,0.765786
-62.62395096,120.60592651,-12.22981453,-0.716537,-0.693282,-0.077031
-62.76859665,123.65743256,-10.13232040,-0.647641,-0.123573,0.751859
-62.39313889,139.64506531,-15.35849953,0.243256,0.813436,0.528346
-62.43218231,122.00310516,-10.02844810,-0.714953,-0.244631,0.654979
-62.33496094,133.76533508,-10.70366859,-0.221913,0.472508,0.852931
-62.31154633,135.03833008,-23.88498116,0.610658,-0.155303,-0.776516
-62.48199081,138.31509399,-14.01954842,-0.079369,0.616191,0.783587
-62.36679077,121.40250397,-14.23916435,-0.412295,-0.707028,-0.574564
-62.28840637,141.19068909,-20.13211060,0.606548,0.784508,-0.129021
-62.53258133,133.04975891,-23.47338486,0.377719,-0.316550,-0.870129
-62.43497467,131.20758057,-22.41687393,0.144849,-0.595820,-0.789947
-62.35723495,120.84535217,-13.49688244,-0.541082,-0.707568,-0.454509
-62.11838531,120.74275970,-13.61141300,-0.505577,-0.699131,-0.505577
-62.02838135,140.77861023,-21.15824318,0.594704,0.783306,-0.180997
-61.95611954,140.59648132,-21.62760353,0.612805,0.756260,-0.229217
-61.96210861,139.35656738,-15.13654041,0.272840,0.821639,0.500467
-61.83692551,139.97027588,-22.71173668,0.775903,0.486363,-0.401778
-61.88097000,133.39578247,-23.25592041,0.474560,-0.212422,-0.854207
-61.75540543,120.91990662,-9.83884335,-0.773528,-0.350429,0.528066
-61.87435913,119.95485687,-10.91702938,-0.804520,-0.503023,0.315778
-61.50493240,124.72006226,-17.06630325,0.032071,-0.581467,-0.812938
-61.22351074,126.61565399,-18.48903465,-0.049573,-0.616123,-0.786088
-61.42069244,133.95506287,-10.67229939,-0.144237,0.563567,0.813380
-61.53346634,119.34471893,-11.53073597,-0.782358,-0.621076,-0.046687
-61.51728058,140.41542053,-20.92966080,0.626958,0.765280,-0.145839
-61.38113785,122.25020599,-9.17197800,-0.567476,-0.031912,0.822771
-61.49739838,124.65551758,-8.96023273,-0.645701,-0.223572,0.730127
-61.34861755,140.58073425,-19.35012817,0.636623,0.761276,-0.123169
-61.23128891,121.75660706,-9.09114456,-0.628684,-0.029404,0.777104
-61.29779434,138.46302795,-22.76520348,0.752297,0.136101,-0.644613
-61.21467972,137.38629150,-22.83434486,0.717610,0.108011,-0.688018
-61.31206512,134.94740295,-11.19994354,-0.116859,0.426605,0.896857
-61.41149902,126.91799927,-8.28652668,-0.716664,-0.073838,0.693499
-61.46670532,120.14929962,-9.92457294,-0.825802,-0.352111,0.440533
-61.30035019,126.12297821,-8.34851170,-0.634110,-0.240741,0.734812
-61.03577805,119.15323639,-12.80777454,-0.631236,-0.644561,-0.431373
-60.89495468,119.43592834,-13.27423859,-0.524468,-0.598670,-0.605415
-60.86973190,127.50418854,-19.26628304,-0.001379,-0.668888,-0.743362
-60.82919693,127.21131134,-19.01368523,-0.020984,-0.653294,-0.756814
-61.08704758,139.85704041,-21.53429031,0.702612,0.621102,-0.347230
-60.71000671,130.10731506,-8.26694584,-0.396014,0.415099,0.819064
-60.84210205,129.00790405,-20.44785118,0.076021,-0.580912,-0.810408
-60.83758926,126.63677979,-18.53468704,-0.043902,-0.627369,-0.777484
-61.08902740,138.36755371,-13.94271088,0.009685,0.767845,0.640563
-60.67887115,139.11875916,-15.48756886,0.271860,0.903752,0.330641
-60.78149796,119.96128082,-9.07722664,-0.711780,-0.286311,0.641401
-60.90540695,119.74615479,-9.33946991,-0.747044,-0.338682,0.572031
-60.44121170,136.35202026,-22.14068604,0.748056,0.088950,-0.657648
-60.52411270,133.32440186,-9.88598919,-0.203868,0.574816,0.792480
-60.32138824,133.67913818,-22.16336823,0.646910,-0.070598,-0.759291
-60.36492920,139.37779236,-20.69062614,0.760474,0.607443,-0.229548
-60.62699509,138.05142212,-22.07545471,0.750793,0.116987,-0.650095
-60.24853516,120.23936462,-8.50576401,-0.640586,-0.116874,0.758940
-60.18325424,138.76866150,-15.06893063,0.363273,0.857943,0.363273
-60.22086334,130.56965637,-8.26004410,-0.375451,0.397444,0.837302
-60.22218704,138.52491760,-14.44340801,0.305363,0.863917,0.400501
-60.33718109,124.39586639,-16.83044052,-0.004083,-0.567506,-0.823359
-60.30463791,137.63725281,-21.74804497,0.728564,0.092353,-0.678723
-60.21232224,134.83554077,-10.94194031,-0.245949,0.524382,0.815189
-60.26803207,137.95053101,-13.46453571,0.026689,0.754306,0.655980
-60.43781281,139.28083801,-16.18055725,0.278565,0.903494,0.325730
-60.58979034,118.11111450,-11.18458557,-0.748959,-0.660511,-0.052784
-60.33793640,135.81350708,-11.45538616,-0.017574,0.498826,0.866524
-60.23938370,126.44184875,-18.40449524,-0.004128,-0.615078,-0.788456
-60.16126251,132.49066162,-21.85272217,0.550538,-0.202830,-0.809795
-59.84099579,128.45529175,-7.26383448,-0.317806,0.220897,0.922065
-60.01662445,126.61344910,-18.53231239,0.015196,-0.603682,-0.797081
-60.04739380,137.37242126,-21.51538658,0.701238,0.111190,-0.704203
-60.05195236,131.11930847,-8.44027328,-0.266540,0.427986,0.863588
-60.10695648,136.41156006,-11.88594246,0.079779,0.659992,0.747024
-60.02081299,129.11181641,-20.39813614,0.173227,-0.561857,-0.808894
-60.15601349,124.38061523,-16.82164192,0.006826,-0.563790,-0.825890
-59.80919266,138.02006531,-13.69841671,0.229407,0.849263,0.475526
-59.97524261,117.40740204,-10.61889744,-0.760132,-0.649768,0.001380
-59.84822083,117.95404816,-8.98375797,-0.775179,-0.364124,0.516247
-59.74188995,117.21659088,-11.26668167,-0.704363,-0.685948,-0.182613
-59.75871277,123.74756622,-7.67586327,-0.683904,-0.149462,0.714098
-59.39094925,136.07446289,-21.18202591,0.651028,0.092168,-0.753437
-59.60138702,130.06301880,-20.89360428,0.325192,-0.424773,-0.844878
-59.53462982,118.38797760,-13.04414177,-0.322341,-0.646302,-0.691657
-59.46013260,137.97543335,-13.86124134,0.270598,0.886546,0.375250
-59.41664886,133.65180969,-21.34664345,0.683141,-0.006928,-0.730254
-59.46176147,131.80764771,-8.72470760,-0.117811,0.530876,0.839221
-59.38237381,139.00001526,-16.60423851,0.482343,0.844481,0.232803
-59.42994308,138.25404358,-20.43325233,0.744869,0.508090,-0.432452
-59.50315857,117.84792328,-8.59002876,-0.738521,-0.293166,0.607157
-59.42545319,130.72679138,-21.07773209,0.448755,-0.220625,-0.865993
-58.91220474,124.63578033,-6.53316355,-0.657145,-0.162389,0.736064
-58.97943497,135.09176636,-10.76410294,-0.073260,0.610499,0.788621
-59.16391754,135.68826294,-11.33100224,-0.035296,0.673447,0.738392
-59.08229065,132.50865173,-21.05615807,0.633552,-0.043938,-0.772452
-59.12137604,128.45935059,-7.00645781,-0.369111,0.270482,0.889155
-59.09809875,130.64279175,-7.89999104,-0.152034,0.521049,0.839877
-59.20698166,138.46162415,-15.53673935,0.460994,0.808734,0.365286
-59.00064087,138.37982178,-15.60748005,0.467328,0.815843,0.340595
-59.17323303,127.02452087,-6.64485502,-0.594047,0.112942,0.796463
-58.89075470,116.82150269,-11.87634754,-0.531607,-0.639616,-0.555234
-58.53874969,119.28829956,-13.94408512,-0.054030,-0.497353,-0.865864
-58.36590576,126.03292084,-6.08525944,-0.536272,0.099203,0.838195
-58.73986435,121.10836029,-7.37638283,-0.560172,-0.144129,0.815741
-58.59949493,136.20040894,-20.40939140,0.714098,0.149462,-0.683904
-58.62915039,132.53788757,-20.66655159,0.642481,-0.001376,-0.766300
-58.32509232,132.79493713,-20.39032745,0.644897,-0.012482,-0.764168
-58.41312408,134.81724548,-20.35946274,0.648959,0.018143,-0.760607
-58.38978577,127.84149170,-6.47917986,-0.306884,0.309849,0.899897
-58.54862595,124.70919800,-17.11392403,-0.085981,-0.648501,-0.756342
-58.69271851,137.73725891,-13.74826908,0.211189,0.915151,0.343361
-58.54782104,126.55273438,-18.47140503,0.006714,-0.508944,-0.860773
-58.06060410,122.59924316,-6.49180937,-0.689050,-0.182621,0.701327
-57.84711075,118.43022919,-6.98059988,-0.584575,-0.085160,0.806858
-58.18989944,135.07499695,-20.16062546,0.659992,0.035331,-0.750441
-57.88793182,134.14392090,-19.96401405,0.647613,0.015320,-0.761815
-57.90803528,134.63090515,-19.96206856,0.637004,0.040960,-0.769772
-57.96683502,127.17988586,-6.14010000,-0.319061,0.283774,0.904252
-57.73797226,119.53664398,-6.74853516,-0.587180,-0.103449,0.802819
-57.47358704,118.89760590,-6.67898512,-0.528471,-0.114381,0.841210
-57.68170929,118.36482239,-6.86253881,-0.585857,-0.049410,0.808907
-57.69231796,123.12163544,-16.00296783,-0.042896,-0.518898,-0.853759
-57.73585129,123.90704346,-16.53683281,-0.046466,-0.592798,-0.804009
-57.56737137,114.44646454,-10.49572945,-0.713265,-0.625926,-0.315389
-57.57330704,120.07480621,-14.34928608,0.076571,-0.466386,-0.881261
-57.58946228,133.38638306,-19.72722626,0.652019,0.082773,-0.753671
-57.50778198,133.05065918,-19.70092392,0.634960,0.110492,-0.764603
-57.34765244,130.24740601,-7.39002705,-0.084482,0.548414,0.831928
-57.63455200,133.15287781,-9.21296978,-0.128540,0.574738,0.808179
-57.52658844,126.64796448,-5.77512407,-0.377417,0.295568,0.877608
-57.39786148,131.91896057,-19.75103378,0.622889,0.043786,-0.781084
-57.07667923,121.84169006,-5.70975494,-0.669700,-0.107921,0.734748
-57.33315659,131.16218567,-19.71458244,0.625522,-0.006904,-0.780176
-56.99085617,131.03367615,-7.87449121,-0.102178,0.525283,0.844770
-57.10254669,137.38269043,-14.17833996,0.463870,0.881493,0.088289
-57.14833832,135.45750427,-19.01402092,0.751574,0.232816,-0.617197
-57.21889496,114.10565948,-10.59744549,-0.659173,-0.605772,-0.445568
-56.98774338,137.02253723,-13.16936493,0.382164,0.807502,0.449323
-56.96650696,113.44112396,-8.69456100,-0.768089,-0.615992,0.174911
-56.84363556,113.47013092,-10.31831455,-0.636257,-0.629577,-0.445881
-57.00279617,136.38740540,-18.29581451,0.724142,0.465638,-0.508722
-57.11429214,136.79071045,-17.97542191,0.730688,0.563205,-0.385869
-56.83131790,113.27690125,-8.66792583,-0.769635,-0.618430,0.158766
-56.82703400,113.22544861,-8.86330032,-0.762036,-0.633787,0.132722
-56.61215591,136.86740112,-16.31943130,0.621356,0.781337,-0.058565
-56.79304886,130.22526550,-19.29155350,0.597522,0.012420,-0.801756
-56.51412201,119.30795288,-5.83296680,-0.678724,-0.166249,0.715329
-56.80873871,115.48814392,-6.61718369,-0.600682,-0.174882,0.780126
-56.73521042,137.13636780,-14.32360172,0.630214,0.776391,0.006895
-56.41455460,125.58689880,-5.19395542,-0.348424,0.173507,0.921138
-56.51414108,117.63545227,-6.14021158,-0.530477,-0.139599,0.836126
-56.52661514,113.33252716,-10.48438931,-0.544587,-0.649121,-0.531099
-56.42948532,113.19420624,-7.55933475,-0.784446,-0.490076,0.380092
-56.50110626,115.64791870,-6.36439085,-0.590460,-0.103513,0.800401
-56.52455902,136.93487549,-14.48652935,0.701919,0.710497,-0.050035
-56.25423431,128.88356018,-18.88852119,0.547508,-0.156644,-0.822008
-56.22914886,134.62814331,-18.26343346,0.679255,0.196504,-0.707106
-56.39487457,135.10612488,-18.28116608,0.682275,0.227425,-0.694823
-56.08587646,123.28234100,-16.19831848,-0.084809,-0.564915,-0.820779
-56.11032867,123.45651245,-16.31619072,-0.090793,-0.569255,-0.817133
-56.13420868,112.38895416,-8.37120819,-0.859991,-0.498192,0.110550
-56.41287613,133.84846497,-9.49565411,-0.085172,0.596202,0.798304
-56.27767563,133.04353333,-18.73246002,0.629367,0.129444,-0.766251
-56.09011841,136.25300598,-17.00357819,0.667684,0.677385,-0.308784
-55.99176025,116.27442932,-12.63138580,-0.121163,-0.454719,-0.882355
-56.19150925,113.87626648,-6.67246532,-0.720148,-0.343005,0.603104
-55.96439362,130.73001099,-7.57003498,-0.149833,0.547411,0.823342
-55.85245514,112.44313812,-7.27252865,-0.830352,-0.406477,0.381171
-55.69833374,120.94013977,-4.73348188,-0.673996,-0.199875,0.711182
-55.85245514,121.47010803,-15.07386208,-0.059717,-0.493008,-0.867973
-55.46226883,131.36653137,-18.05930138,0.616337,0.061491,-0.785078
-55.66786957,127.63666534,-18.39517593,0.403545,-0.035724,-0.914262
-55.80351257,128.40583801,-6.22570944,-0.076471,0.468561,0.880115
-55.58954620,133.45614624,-9.12088108,-0.012500,0.659730,0.751398
-55.67881393,111.57859039,-9.02458286,-0.835181,-0.511982,-0.200866
-55.37139130,118.74457550,-4.97985172,-0.596169,-0.250108,0.762908
-55.15848160,118.61557770,-13.79922676,-0.034968,-0.356155,-0.933773
-55.27650070,124.70429993,-17.18889427,0.031217,-0.487249,-0.872705
-54.98706436,131.54870605,-17.68840599,0.633858,0.020896,-0.773167
-55.26303101,129.06781006,-6.52755785,-0.072728,0.432254,0.898814
-55.02839279,127.20090485,-5.50461912,-0.086156,0.492925,0.865796
-54.86362457,121.30033875,-3.96579170,-0.513924,-0.117261,0.849784
-54.97574615,135.52351379,-12.41179752,0.460052,0.851325,0.252188
-54.91622543,119.38690948,-4.41873121,-0.628500,-0.178916,0.756952
-54.56856918,126.96837616,-5.32789040,-0.045314,0.487474,0.871961
-54.85960388,127.06758881,-18.00448990,0.462963,-0.079246,-0.882828
-54.78204727,125.56632233,-4.71265030,-0.121949,0.304202,0.944769
-54.56966400,129.31547546,-6.57390594,-0.083025,0.398792,0.913275
-54.62347794,111.33159637,-5.98269320,-0.693084,-0.329499,0.641143
-54.49873352,111.24990082,-10.19846439,-0.438846,-0.541519,-0.717057
-54.05713272,134.45289612,-10.81485558,0.370724,0.843124,0.389495
-54.10191345,134.86824036,-12.08922577,0.564946,0.794020,0.224431
-54.53368378,132.45777893,-17.33535576,0.657019,0.006916,-0.753843
-54.45977402,112.06674194,-5.53933191,-0.634932,-0.209574,0.743600
